-11.461283802963495	-9.658102090769798	10.237723889288798
3.1719955108146847	-6.707725079192158	34.063819025772936
19.912306085114633	6.776076661903295	-15.42670395318357
-4.342102952381068	-8.681048986265127	-33.796613547894154
6.744477656652495	-13.275328524089012	-17.942738210701325
13.170803474865348	-15.230509245971007	-9.128833116467149
6.773476844527824	-10.151481881760317	9.56203147831338
-14.806091185429034	-3.894091365036814	13.798165900221182
-11.091172931998635	22.2116278972083	7.869548632584593
7.863257514406696	-16.262308842567375	-6.969299801927243
5.662980550770943	-10.124725964225584	-22.78506879352673
16.476596427282114	23.001220252994813	-15.382159444799475
-2.8262709513134388	11.86289672632425	8.819106709612733
-3.7648705035613403	-4.771688200229156	-13.786653636324461
11.738408956692505	12.574463515329963	-10.29421496787018
-13.114649172643105	-6.777360315309767	1.495680417212926
6.56045899729082	12.027655501573827	-7.794157384124444
5.747649202866177	7.0630832822382335	8.396593782014941
0.6139117964546409	-19.354843815151682	-12.049840580997277
5.82321044105665	-9.998092219399943	8.304718093339963
12.899240270931223	7.8664679761878284	-4.84466522976287
7.097434183891161	7.459943346694746	11.28076995320537
12.642877295028045	-7.576287815168861	8.326095514676938
-17.36604832002328	-13.68284508886053	-13.811632197994184
-21.01399710357831	11.024098137284817	-11.008038191610094
-10.246853689254786	-1.4885412987768345	7.997856663236137
-16.35696964739259	16.93424733213263	22.9196377459354
-12.968818202599303	13.947651434724014	-4.398559212698445
-18.149059520279987	14.801182756706554	-3.4382620609902204
20.100473762241506	-4.1134488307819	11.8258730688416
14.213704834411923	1.643645487592095	-6.870522816036589
13.27177670475439	22.655749383327276	5.189676997732219
9.484948335742374	2.40154362631267	8.411813164756804
23.148617634642367	12.192041573410906	8.169682306763374
3.7024862370139213	-10.839361273128418	10.590945114296542
-9.799229480605018	7.612571155510467	7.273590631516381
-5.244056812379552	-7.581050286748677	-13.845853337718227
10.148725356074634	-5.12987723797315	-16.95120155946986
-15.325323555502376	-4.021624045075554	5.270334287614751
-36.26686330275796	-17.243185673861223	5.136449722554435
8.404641600934353	12.23929972236782	12.474478584786667
-16.062125553446762	15.522419915036762	2.702594799627837
17.443595251122606	-9.415471419022909	13.303335988236155
11.70381814039567	10.679880260236466	-2.6959118884211213
9.866065910796175	-8.924488640222346	9.745218938444904
-7.967898917878057	16.917929564088137	15.294757427529122
-9.733853823280924	4.429396628064596	-4.707395714678976
-4.627639196877626	-5.335925635434433	11.055691153065103
-23.132305625673435	-11.423057849972786	8.732241615024979
-15.041446997289645	-15.814687817786853	8.40191575462547
-10.346505969140182	-4.407623658074691	-17.59038603095091
-11.40328859738582	-6.557925952895652	-7.321510921349233
16.525531996152164	-10.442343973782329	-5.017654154924205
-8.269175801253303	-16.394586993507076	-16.755133558123283
23.32392811952883	9.046979984450738	-16.66073440871547
14.224682073835439	-7.326528102142089	15.676484119884034
14.379463844422053	-18.375571094771136	2.7962038358350796
2.524744104220758	6.217304636822602	19.538025261050326
-13.867946079441612	8.887962042645565	-12.632434970418515
-21.71465620772148	-24.83978211028827	2.7500142128111653
-5.968519718353135	13.307345039832278	-19.642110154585257
-0.8981408543619476	-9.701867461094924	-3.7838263539443155
-6.7576934587496345	-18.192128942587242	-11.99656133640666
16.437941446820776	-10.12967013177033	-16.236762984789987
-7.116055883313841	-11.157582565992415	-7.320319117147632
-1.3784036092764504	-24.502340734839414	36.471893026822954
-19.883883866806244	1.6325999427179	17.058199404157214
-18.145367200022708	-19.4527861486033	13.51516361976762
-16.701114904727458	-17.844882865994407	-2.367347703068403
-16.38399845883753	10.483288121629194	-10.507600541492847
14.455375109241038	21.471265796369337	15.544520585162527
3.972067658936239	17.513075418586663	-7.966420950822917
8.774816118141707	-18.049331403558398	-2.210626027543178
7.633143217640905	-24.641452131556427	7.266133226223277
15.136180422417205	-17.59352029478622	-4.9713299521494
3.06559028588009	14.153388061434075	-13.773018815004743
13.37269248376454	11.40201184551364	10.781678976717691
7.329402830672421	-16.268978262980927	4.010922242900979
-10.92152400615915	15.63267176305664	-12.075281044301924
-21.035467739006773	-8.544512482985501	11.29334472433009
-5.506288608326029	-11.84035731049313	10.764106809875438
20.47552615246389	18.355130680621038	13.893262252167569
21.51786624181682	9.419354433307136	-9.74434754707778
-3.9633641317041532	-15.860988648114416	7.221041259532231
-13.346090900994998	-5.598123885977791	9.048670505242033
8.003094621663134	7.93884214672245	25.050780595916564
8.077880783416406	11.017706016868239	5.224432849174227
-15.802084526405396	-6.06948692425575	10.051413854268032
-7.933953746179264	15.999757507765827	7.102008583614533
-18.368505478203247	-10.498622650480133	-9.19747231653193
7.593450211520783	19.679189119969557	12.468209244281615
4.3141284155030055	-4.623816543742053	12.95826819857108
23.63255548322073	-22.06836877227295	-17.515785939914476
-4.84226185886045	-1.2438657459922415	5.363401724153077
11.908112563151402	-2.1602358838928994	-5.497339735369517
-9.232717016812328	7.725395548417014	9.601172797878187
-11.744404330524674	-13.87568695705987	5.298879146405482
12.189390960188831	8.839487884919691	-20.097646523361806
5.83404256999042	-14.66175911672709	-6.594120379128507
-12.875203644044475	10.119635967749385	17.069262816779634
-19.432123467098638	-9.784406289917614	-3.3526241720214736
-9.065664959406366	5.674034194881539	-4.527474611065721
-8.052820383915718	-10.31566425597488	-14.422065877803194
9.693242499950772	7.8084286625764046	8.842615892629523
-5.713733517836361	-6.228674907280128	10.44090079013916
-22.678403015518473	-0.17766206523973205	3.419016136781125
2.249238196854994	8.190462922863011	12.808984249610416
-25.883228509032914	-6.290457117281669	-10.79721742784755
-28.242724484452282	10.909908126879037	-16.410393486473268
-4.640101791283508	-12.992511479940415	8.821910441828946
-10.064208233531591	9.907724311454912	14.391531297933312
-14.787828519410876	-11.747102556499815	6.875684376842777
15.501925315109725	8.114447602103551	-20.472884102144405
-5.253927243196169	-3.057624399227425	-8.594876608330994
-7.433233578802624	-14.318152216572546	16.976817287760163
14.83460187139708	13.276140704985366	5.532519899554642
-14.47872041750451	3.768721798609284	-17.36721812524733
15.557367137805905	7.9952660682977	13.533475459308848
12.67071689829094	-30.05409367298093	10.641674432654813
-3.9930604336097866	-12.899269164929871	4.900470895501614
25.061809582893236	-9.351951181294375	14.749815320255724
-3.179953655184774	-9.627568099310567	-3.3254763458519436
-9.927626361632512	-3.7174633380404067	-18.79481528707522
15.508028738341592	18.56299960972972	-8.131810428797932
7.787555999041552	5.9462727658421075	1.20650308033901
