4.926818440887873	9.648009569348845	-15.438751090098021
2.0432882717090215	12.251521812533566	6.4345740474939275
-12.324922604233773	-7.404575276137387	10.029870470379864
-28.109400919213158	-9.007617387510207	-17.113002459069307
-0.5991634765890591	-11.719901993681852	16.247788889380256
9.464465721948956	15.008519865678378	-13.946220197876793
24.13883946830362	18.812611727533657	-21.019973144280144
17.071607692774446	-15.073461281532879	-5.561377021835671
11.3879836022465	-13.169026991821022	-10.947471537719139
-5.840258689330511	-7.337789249733523	12.749044011083921
14.277678581449106	4.3764548560723116	22.37966923445875
-14.107814852976203	12.763011817436128	-12.696132592216614
9.016093811971194	17.692121856455316	4.201166480693658
5.9803422549081855	13.30891894911463	3.787987829481249
6.465395831839479	8.701132809618645	-7.313833193184966
-5.481724381603781	4.093290864339256	13.62378248080072
14.603630271664166	4.264749119363076	8.941731711480866
-13.135675044079493	8.673419407481425	6.134137556858277
-3.7923166926986265	-3.062424864173941	-13.322203930904562
6.461350065504749	16.715478640082345	-7.758103209278688
-6.611618912121281	21.13610024066181	11.28691703278155
13.300985023016992	-6.295981453021395	4.343762942266561
10.437806683592921	-14.05850322993515	18.43159083555624
-15.355958271414481	-15.338727788699599	6.329681014506662
10.402437587112004	4.895317668162839	17.77762767132549
9.356659718019452	23.403559031466333	16.409407420826973
-1.6761302389857256	-4.033570712729333	-14.438940102001602
17.189971065610948	-7.488909978587625	-7.860310596754856
13.408080594243962	19.039604659489505	11.80303532647466
-11.389640085792994	-10.027793289852523	-15.742009481981121
-3.550375570944376	9.328968956278752	8.962882792937227
14.550490502005662	-3.09034616057833	11.372546455592092
-8.70703626258304	-9.78618405090704	12.022140114679893
-2.8202006840884573	-4.649292511542036	-15.776791863975362
-16.750875415916312	-14.522318896388871	8.980417443099938
-10.458618109755948	-3.363484265544852	20.829322538907622
-15.425745827588862	-8.902735969231157	11.471934517007817
-17.57497345549227	12.184442628664389	-0.6903828869145533
12.44120370625558	-9.808020235606936	-19.88249035057855
-10.476210202529396	19.10044686254519	-9.04459873301535
-8.695336154366219	6.4631685661711025	-13.676500327263822
-17.35125065101072	14.788504709186142	13.26936348601524
8.728393907145913	13.55449569619851	7.672562485621454
-4.846249857623035	17.905964158931976	14.478672093354502
-8.068207078724496	15.056252766632998	-6.803569623594271
3.164381457598869	-8.602174886947632	12.070760270485257
-5.694823977084147	-8.304320255907776	3.1481749010358353
-15.870801361270845	14.815458208937445	15.782520514330159
-17.275444162546382	8.196383328005382	-12.572953859981151
7.131318515074895	10.243969506591617	11.234293854780834
-4.8042786153072266	-15.183492966688522	-11.015697030467928
11.102882516995669	-5.952580517281737	16.544464977299754
5.00909686473986	-7.613937953475992	7.7024827226832135
-2.9283966402818	-13.680007059621643	4.900032725160086
-6.991237245678923	17.329370392552917	4.40306378911276
-8.657506701699676	-3.603349104419025	-9.250484635155027
7.033993965780833	-18.130871509636744	8.509108968040985
-8.770717753434344	-7.355622175561371	-14.326140234853419
-1.9634540962677194	7.257745490501305	-18.857518764657705
23.05702487190241	7.346808560647384	-11.103890485515493
8.171204285385116	-8.542544867853628	4.430580766918401
-1.8948919870392817	-3.7054467397982913	11.132570066172294
14.624338117349508	-7.035353144790744	-13.761262033508755
-22.256159999521778	-15.312393882410149	13.152747190229883
-7.578726266336271	-14.959277789541007	4.1829206300212105
-10.214681824860392	-19.88718906485809	-2.486957370304793
15.285768443040928	-12.047631114538015	5.10904086650178
-11.4688422574373	23.4907397428289	-18.907793511208272
-6.519418817399703	11.264210539515584	12.508838416315957
-3.802545316285786	-10.292114832956873	7.57403334431487
12.386344529533845	-7.920409348061002	9.948728880182609
19.589631509514867	14.876904729984636	13.78942655374368
12.346139970804387	-16.48049967963551	-6.858897790287672
13.940522384846881	-24.752314989647015	-10.877794272486241
-3.06846618683411	-6.355883983974281	-9.38598911754056
-9.710666198614877	9.50170590780437	-9.901843442601796
-7.409005643017276	14.469865905212972	10.40658770277404
-21.390331130299398	13.123439398649445	11.09228844440939
-20.794549195738547	14.750608403043369	-9.660911155706073
-4.828739203265264	15.77923137128965	-5.791990221316862
25.25663988007336	17.85314976858433	25.174724117813668
20.87852833172261	-3.8404396545903605	-12.075273481736888
8.164794079758598	4.962685816772946	8.618307858321264
-10.935227894590502	22.577862915682115	-1.5059636796695026
-11.427315281370067	7.642489731429682	-7.35917281862294
5.254285131914759	4.414470928019982	14.846822515549787
-7.62629031384109	6.6087042417768735	-7.366750139630287
15.057177264652116	-11.367912983771614	5.224312794067817
7.373123813810207	-5.5709340612880505	-2.7815536901290043
12.18416685448579	10.516864420450144	-14.708693087395563
6.714586661476098	12.371243472547947	15.554469442039748
4.657423659627678	10.992300626019059	14.065925447251821
-5.3095123330060945	4.904119665771205	-27.84968132124023
11.826182324009224	14.344571246187332	6.416955499560013
12.33645531628858	-9.104703413482044	-5.130621712227312
19.798618587399794	-12.519192433973675	-8.26863357246051
-12.758787599865709	-2.739802039677132	6.240615304036335
15.021364501447733	15.66514229833576	-14.09791920926967
13.648193941889362	-4.3811114294462215	16.6631298742219
6.237927124871815	8.652159266323727	-16.909787770076207
-9.24177302122284	15.145612651845257	10.503202402252416
7.338382169563261	-11.178264441732717	-8.919181425143847
-9.246583530463267	17.392530732941417	11.939665964885844
-9.784347723864451	20.73754462636626	15.614655218772452
-9.44165649663242	-15.304630976712389	-17.63517375689229
3.855769729361026	4.683732285293358	2.8971460425950144
-13.881671182630766	-24.548216025678045	-13.9287163038707
-10.492018458279443	8.94240767292967	-6.217227782560142
16.39706496373018	6.603250790638872	9.18032876208693
-14.69989762044893	-12.276868122198081	11.392873548838457
10.648949378133015	-7.606513352346046	21.602451656493546
13.302357582555121	-4.829676491024681	-19.23801405572225
12.836601800824043	-11.55975881270162	6.606857262910509
-7.705576329794941	-12.329926177250561	8.899764958434742
16.29320986802896	-28.515974613477333	-0.2608616852693355
-3.1743568967445315	12.377037586831639	-7.550337017884301
-15.060548291133978	9.235673486122076	-21.11010151343194
9.762868866731319	-18.933608131736197	15.053687302248367
4.638424562336418	0.6993772799605219	20.647523051402068
-20.542964040214574	-8.587971200558503	-16.51421444786687
-20.2497819895545	4.219133145932819	-25.424075064066166
6.819776308245667	-23.188384951425444	-16.196271040938313
-6.9340917607441215	-14.636537329018095	-9.971938977006264
-2.9917541383467383	-8.56187443335923	12.3805434411551
5.49469178612421	13.911315714996151	3.559731570859226
