7.23827282045545	-19.95919105792067	1.8323208161596605
-26.118871680049125	5.722942401347722	9.33954387346862
5.072176617540952	4.247072512044692	19.484741454702924
-13.089544137032904	-9.06726029509289	-28.71848102729589
8.592345115693375	-10.02594816035394	-14.319844389222233
-10.852794369031601	2.751610109402447	8.422779961902899
10.154251788121147	-10.690952601002952	-5.579761109182522
-28.731166916586236	21.00065005840679	-4.802302707519709
14.052830251824247	-16.105116886804012	-6.642425344577392
17.669011628076877	15.987979938079548	3.5164897130681187
5.887596261475857	9.128341786110528	4.43488177314713
6.943518975111361	-8.025609990746869	-4.1191853724991265
-3.966861872399671	24.36135808610714	2.987203447767258
-8.168644576917721	21.77924785243114	-3.1814400356676646
-16.057880188713682	17.988093859926696	-5.9874360651831635
17.834971608877844	-9.546686685095544	10.23846963513642
27.075320952606717	6.19951920077922	-10.534007098108505
-4.433979868829189	8.097206085598636	-6.589004821564693
-22.817774429049347	-9.927709545561228	-4.53288103077724
-11.840592697392696	9.824631981901263	-10.720186218271484
-13.084901338385842	-16.304714484092152	-7.304346285496826
-17.77941093502427	17.241353545511988	-6.242848039879643
-15.025040484280082	11.71217621710803	9.766968866823058
-3.926002720105609	9.769591619895658	-14.98461795264389
0.28378086126798846	-7.081378501088965	10.613163684464777
-10.06165061829676	-6.799944843166666	-10.287612517738951
-6.116164131031027	9.511829103786916	-6.324683888544818
-20.457177744376324	6.890224971327267	-12.844927942733557
-8.522367506140558	-28.45224065305746	11.672902097777698
-19.508916576376286	-8.082269709969014	1.4304226432357843
-11.034599074241074	-23.31384753638522	6.654310805076905
11.628117277759179	-2.8085540742942467	12.109153128917082
12.70179315466136	-13.365906249306331	-15.710307822640354
-18.532281648604716	-8.220612016742074	21.96085267515145
8.184417487294892	13.919680680785131	-5.30943718716807
11.099113607157708	10.440064563035248	-19.290673888187833
-16.707592763792523	5.642636109497889	-12.103930514390234
17.038968635109743	-14.79147219393047	5.35253796455851
13.781297051179987	-6.067703286763721	13.388068816532867
14.081164875136244	4.683980559139571	-8.669305122921761
-2.4509869695328472	21.22579341467435	-11.965948416772928
12.563020189685753	14.41188095036755	21.534170642565037
-17.052483996797857	23.062034923422512	-9.592607203232227
-3.184480401885937	13.407235510432596	-11.907848564531431
4.035607459362045	13.75393209363304	17.42293447506718
16.893634549205206	18.445018829335375	-6.035880688684863
-18.041996240805936	-11.718713368941666	11.144578170760523
15.656899794635823	-2.8808775814475656	5.7956785417359304
11.465445687943085	5.389620760708101	-6.310776341625689
-10.715294841026502	-3.662750418939736	-14.053664775009738
-17.33021359003055	-10.73762680012915	11.919939486483315
-6.2089496725905	12.065727560875755	-12.404019783514586
15.951698952668359	10.158175646935117	12.442054357919812
-17.713623914811304	9.560059564287698	9.490014033808631
-18.808768959569125	-6.463214869718748	13.929334963699885
8.472637358833957	-12.300785847882901	2.8376916839801765
10.030591095868543	13.588211110373958	8.096328371188395
-4.491867680667836	15.918378816348163	-26.005479505812403
10.23587594642607	-28.98271167280145	-4.751190380353481
-14.069075261542773	6.674338685945285	14.339066294866397
8.294217625111242	-6.836218341099898	5.271921826596494
-14.395447902559294	8.474817864750449	14.791703010776505
17.324400163401574	17.099720370652168	5.416754391551543
11.429807476579114	-10.982531368314705	-12.708787673644343
10.604722790075034	7.103832812449411	12.445664439062625
8.637916647563346	-6.544997088329947	-19.82999471654327
-6.942139958400397	-10.885481634424789	11.211878936685908
8.394315522815853	13.13067770001973	9.633959894314518
6.620596325400945	9.39434580585755	12.215410302681255
14.804420721644677	18.59894131283021	2.5550890933705657
11.824584856217081	10.434287958598684	-11.402344074689115
-10.374629410034192	7.320495706260038	-4.61559480145088
-8.047539125232086	-9.243323426153308	-9.670514528681215
19.176706293827742	-2.884080648380641	10.204644228921865
7.59422097786964	4.250099877368658	-13.678881185120975
12.378684498288818	-5.647695442578803	10.567212734085041
-9.456440683201071	5.222350794846689	20.460633786449037
11.49581713339771	-10.886364277859212	12.350015914524073
4.493534130125414	-11.96270611820673	6.811275779497859
-10.904939634375896	-10.961280069068774	-16.78699743180169
-12.25950295848022	21.128821999950976	21.360219321052938
-19.491642934002332	12.725160738287245	-8.654212951899607
-12.454831232159577	11.155389584205242	-10.23780761516788
3.57876405110964	14.771822875115278	-3.6588807376662627
12.309470093288809	8.34162894269362	15.182011723724596
11.420518393978435	13.3055612234787	19.89247968933163
11.655242002035312	2.0168220353728046	-2.360732392680094
14.513743551381628	13.424140312659421	-13.615979872588891
3.0573904023791676	15.463405357156875	-2.2505835792178055
-16.384873652174413	8.810269210916962	11.54411948309627
4.913729124216336	-11.891658563608551	-23.24284444677465
-11.682848262948633	9.60523068316086	-10.06877884013777
-16.793974409037187	13.894778294361005	6.601050176065039
-9.05183100209346	6.935246541749129	11.323940413903363
-17.358532853768196	-8.043743551700473	-8.98428827505803
4.026177148635342	6.815547849842323	-12.171687206265752
6.365506919952342	3.47134712931872	-17.239523038026178
7.338775194447016	-9.119658429409125	2.431197056449933
-22.42685073690827	11.157079868153312	-11.520972113268778
-3.6149319969480938	5.390092273435455	-10.29524489258858
17.21354690151499	12.210396499853282	12.927237690654058
6.235108734638301	-26.904869007017897	10.981516689894837
-23.807484565369606	-2.038271476039872	4.933993487951744
-1.4682115820480555	-8.858297953666959	-15.976308561262806
-4.075558220944897	-10.46345333903159	-2.9703428467688218
5.701921737699368	18.533993944577958	-9.350870002860917
5.090976997109772	-6.931978120838484	14.50053941410445
8.83433240152115	13.11129766695524	9.472808719932344
-16.92399104127957	7.581532639030522	-5.031252845392638
-18.248538376054245	-11.87238881788299	-13.532214567315958
6.297999540297112	3.268245357566161	-22.736087482289527
-9.945040531651125	-21.552850117512317	15.81995059023387
-10.65120078104121	15.616284918881362	16.160179339287104
-16.766776864354778	17.264933231231122	13.249619823438996
-19.06359109084637	-8.939562940555033	17.64057111611304
10.242662451806032	8.501011078684352	-15.892484202637801
19.075841259614176	-14.5908110573341	7.75787075695891
18.392996171103164	11.701155254148526	-10.256262360894812
13.783058749910918	9.878499330276197	4.519099584777488
9.442445367832825	21.202274595772323	10.93331453838759
8.540723912086714	-11.07130075402029	-7.703739926915812
4.569166276005981	13.626523395351976	-13.39914952498382
-5.972487167079419	5.26048470537927	12.047209510250536
-12.97363360578023	-20.011635850019672	8.553125744653817
-18.47919803128426	-12.929095018812836	13.990256921831426
